1472.000000 304.000000 32.000000
1470.291285 305.025229 32.170872
1468.582569 306.050458 32.341743
1466.873854 307.075688 32.512615
1465.165139 308.100917 32.683486
1463.456423 309.126146 32.854358
1461.747708 310.151375 33.025229
1460.038993 311.176604 33.196101
1458.330277 312.201834 33.366972
1456.621562 313.227063 33.537844
1454.912847 314.252292 33.708715
1453.204132 315.277521 33.879587
1451.495416 316.302750 34.050458
1449.786701 317.327979 34.221330
1448.077986 318.353209 34.392201
1446.369270 319.378438 34.563073
1444.660555 320.403667 34.733945
1442.951840 321.428896 34.904816
1441.243124 322.454125 35.075688
1439.534409 323.479355 35.246559
1437.825694 324.504584 35.417431
1436.116978 325.529813 35.588302
1434.408263 326.555042 35.759174
1432.699548 327.580271 35.930045
1430.990832 328.605501 36.100917
1429.282117 329.630730 36.271788
1427.573402 330.655959 36.442660
1425.864686 331.681188 36.613531
1424.155971 332.706417 36.784403
1422.447256 333.731646 36.955274
1420.738541 334.756876 37.126146
1419.029825 335.782105 37.297017
1417.321110 336.807334 37.467889
1415.612395 337.832563 37.638761
1413.903679 338.857792 37.809632
1412.194964 339.883022 37.980504
1410.486249 340.908251 38.151375
1408.777533 341.933480 38.322247
1407.068818 342.958709 38.493118
1405.360103 343.983938 38.663990
1403.651387 345.009168 38.834861
1401.942672 346.034397 39.005733
1400.233957 347.059626 39.176604
1398.525241 348.084855 39.347476
1396.816526 349.110084 39.518347
1395.107811 350.135314 39.689219
1392.000000 352.000000 40.000000
1391.333535 353.885689 40.000000
1390.667070 355.771379 40.000000
1390.000605 357.657068 40.000000
1389.334140 359.542757 40.000000
1388.667675 361.428447 40.000000
1388.001210 363.314136 40.000000
1387.334745 365.199826 40.000000
1386.668280 367.085515 40.000000
1386.001815 368.971204 40.000000
1385.335350 370.856894 40.000000
1384.668885 372.742583 40.000000
1384.002420 374.628272 40.000000
1383.335955 376.513962 40.000000
1382.669490 378.399651 40.000000
1382.003025 380.285340 40.000000
1381.336559 382.171030 40.000000
1380.670094 384.056719 40.000000
1380.003629 385.942408 40.000000
1379.337164 387.828098 40.000000
1378.670699 389.713787 40.000000
1378.004234 391.599477 40.000000
1377.337769 393.485166 40.000000
1376.671304 395.370855 40.000000
1376.004839 397.256545 40.000000
1375.338374 399.142234 40.000000
1374.671909 401.027923 40.000000
1374.005444 402.913613 40.000000
1373.338979 404.799302 40.000000
1372.672514 406.684991 40.000000
1372.006049 408.570681 40.000000
1371.339584 410.456370 40.000000
1370.673119 412.342059 40.000000
1370.006654 414.227749 40.000000
1369.340189 416.113438 40.000000
1368.673724 417.999128 40.000000
1368.007259 419.884817 40.000000
1367.340794 421.770506 40.000000
1366.674329 423.656196 40.000000
1366.007864 425.541885 40.000000
1365.341399 427.427574 40.000000
1364.674934 429.313264 40.000000
1364.008469 431.198953 40.000000
1363.342004 433.084642 40.000000
1362.675539 434.970332 40.000000
1362.009074 436.856021 40.000000
1361.342608 438.741711 40.000000
1360.676143 440.627400 40.000000
1360.009678 442.513089 40.000000
1359.343213 444.398779 40.000000
1358.676748 446.284468 40.000000
1358.010283 448.170157 40.000000
1357.343818 450.055847 40.000000
1356.677353 451.941536 40.000000
1356.010888 453.827225 40.000000
1355.344423 455.712915 40.000000
1354.677958 457.598604 40.000000
1354.011493 459.484293 40.000000
1353.345028 461.369983 40.000000
1352.678563 463.255672 40.000000
1352.012098 465.141362 40.000000
1351.345633 467.027051 40.000000
1350.679168 468.912740 40.000000
1350.012703 470.798430 40.000000
1349.346238 472.684119 40.000000
1348.679773 474.569808 40.000000
1348.013308 476.455498 40.000000
1346.760563 480.000000 40.000000
1346.654537 481.843558 39.231851
1346.548511 483.687116 38.463702
1346.442485 485.530673 37.695553
1346.336459 487.374231 36.927404
1346.230432 489.217789 36.159255
1346.124406 491.061347 35.391105
1346.018380 492.904905 34.622956
1345.912354 494.748463 33.854807
1345.806327 496.592020 33.086658
1345.700301 498.435578 32.318509
1345.594275 500.279136 31.550360
1345.488249 502.122694 30.782211
1345.382223 503.966252 30.014062
1345.276196 505.809809 29.245913
1345.170170 507.653367 28.477764
1345.064144 509.496925 27.709615
1344.958118 511.340483 26.941465
1344.852092 513.184041 26.173316
1344.746065 515.027598 25.405167
1344.640039 516.871156 24.637018
1344.534013 518.714714 23.868869
1344.427987 520.558272 23.100720
1344.321960 522.401830 22.332571
1344.215934 524.245388 21.564422
1344.109908 526.088945 20.796273
1344.000000 528.000000 20.000000
1343.285037 529.867840 20.000000
1342.570074 531.735681 20.000000
1341.855111 533.603521 20.000000
1341.140149 535.471362 20.000000
1340.425186 537.339202 20.000000
1339.710223 539.207043 20.000000
1338.995260 541.074883 20.000000
1338.280297 542.942724 20.000000
1337.565334 544.810564 20.000000
1336.850371 546.678405 20.000000
1336.135408 548.546245 20.000000
1335.420446 550.414086 20.000000
1334.705483 552.281926 20.000000
1333.990520 554.149767 20.000000
1333.275557 556.017607 20.000000
1332.560594 557.885448 20.000000
1331.845631 559.753288 20.000000
1331.130668 561.621129 20.000000
1330.415706 563.488969 20.000000
1329.700743 565.356810 20.000000
1328.985780 567.224650 20.000000
1328.270817 569.092491 20.000000
1327.555854 570.960331 20.000000
1326.840891 572.828172 20.000000
1326.125928 574.696012 20.000000
1325.410965 576.563853 20.000000
1324.696003 578.431693 20.000000
1323.981040 580.299534 20.000000
1323.266077 582.167374 20.000000
1322.551114 584.035215 20.000000
1321.836151 585.903055 20.000000
1321.121188 587.770896 20.000000
1320.406225 589.638736 20.000000
1319.691263 591.506577 20.000000
1318.976300 593.374417 20.000000
1318.261337 595.242258 20.000000
1317.546374 597.110098 20.000000
1316.831411 598.977939 20.000000
1316.116448 600.845779 20.000000
1315.401485 602.713620 20.000000
1314.686522 604.581460 20.000000
1313.971560 606.449301 20.000000
1313.256597 608.317141 20.000000
1312.541634 610.184982 20.000000
1311.826671 612.052822 20.000000
1311.111708 613.920663 20.000000
1310.396745 615.788503 20.000000
1309.681782 617.656344 20.000000
1308.966820 619.524184 20.000000
1308.251857 621.392025 20.000000
1307.536894 623.259865 20.000000
1306.821931 625.127706 20.000000
1306.106968 626.995546 20.000000
1305.392005 628.863386 20.000000
1304.677042 630.731227 20.000000
1303.962079 632.599067 20.000000
1303.247117 634.466908 20.000000
1302.532154 636.334748 20.000000
1301.817191 638.202589 20.000000
1301.102228 640.070429 20.000000
1300.387265 641.938270 20.000000
1299.672302 643.806110 20.000000
1298.957339 645.673951 20.000000
1298.242376 647.541791 20.000000
1297.527414 649.409632 20.000000
1296.812451 651.277472 20.000000
1296.000000 653.400000 20.000000
1294.016783 653.141443 20.000000
1292.033567 652.882886 20.000000
1290.050350 652.624330 20.000000
1288.067133 652.365773 20.000000
1286.083917 652.107216 20.000000
1284.100700 651.848659 20.000000
1282.117483 651.590102 20.000000
1280.134267 651.331545 20.000000
1278.151050 651.072989 20.000000
1276.167833 650.814432 20.000000
1274.184617 650.555875 20.000000
1272.201400 650.297318 20.000000
1270.218183 650.038761 20.000000
1267.466750 649.680050 20.000000
1267.117617 650.531706 18.224391
1266.680241 651.598617 16.000000
1265.894286 653.339726 15.407705
1265.108330 655.080835 14.815409
1264.322375 656.821944 14.223114
1263.536419 658.563053 13.630819
1262.750464 660.304161 13.038523
1261.964508 662.045270 12.446228
1261.178552 663.786379 11.853933
1260.392597 665.527488 11.261638
1259.606641 667.268597 10.669342
1258.820686 669.009706 10.077047
1258.034730 670.750815 9.484752
1257.248775 672.491924 8.892456
1256.064516 675.115385 8.000000
1256.662710 675.625256 6.160925
1257.260903 676.135128 4.321851
1257.859097 676.645000 2.482776
1258.666667 677.333333 0.000000
1257.045276 678.498708 -0.114004
1255.423886 679.664082 -0.228008
1253.802496 680.829456 -0.342012
1252.181106 681.994830 -0.456016
1250.559716 683.160204 -0.570020
1248.938326 684.325578 -0.684024
1247.316935 685.490953 -0.798028
1245.695545 686.656327 -0.912032
1244.074155 687.821701 -1.026036
1242.452765 688.987075 -1.140040
1240.831375 690.152449 -1.254044
1239.209985 691.317824 -1.368048
1237.588594 692.483198 -1.482052
1235.967204 693.648572 -1.596056
1234.345814 694.813946 -1.710060
1232.724424 695.979320 -1.824064
1231.103034 697.144695 -1.938068
1229.481644 698.310069 -2.052072
1227.860253 699.475443 -2.166076
1226.238863 700.640817 -2.280080
1224.617473 701.806191 -2.394084
1222.996083 702.971565 -2.508088
1221.374693 704.136940 -2.622092
1219.753303 705.302314 -2.736096
1218.131912 706.467688 -2.850100
1216.510522 707.633062 -2.964104
1214.889132 708.798436 -3.078108
1213.267742 709.963811 -3.192112
1211.646352 711.129185 -3.306116
1210.024961 712.294559 -3.420120
1208.403571 713.459933 -3.534124
1206.782181 714.625307 -3.648128
1205.160791 715.790682 -3.762132
1203.539401 716.956056 -3.876136
1201.918011 718.121430 -3.990140
1200.296620 719.286804 -4.104144
1198.675230 720.452178 -4.218148
1197.053840 721.617552 -4.332152
1195.432450 722.782927 -4.446156
1193.811060 723.948301 -4.560160
1192.189670 725.113675 -4.674164
1190.568279 726.279049 -4.788168
1188.946889 727.444423 -4.902172
1187.325499 728.609798 -5.016176
1185.704109 729.775172 -5.130180
1184.082719 730.940546 -5.244184
1182.461329 732.105920 -5.358188
1180.839938 733.271294 -5.472192
1179.218548 734.436668 -5.586196
1177.597158 735.602043 -5.700200
1175.975768 736.767417 -5.814204
1174.354378 737.932791 -5.928208
1172.732987 739.098165 -6.042212
1171.111597 740.263539 -6.156216
1169.490207 741.428914 -6.270220
1167.868817 742.594288 -6.384224
1166.247427 743.759662 -6.498228
1164.626037 744.925036 -6.612232
1163.004646 746.090410 -6.726236
1161.383256 747.255785 -6.840240
1159.761866 748.421159 -6.954244
1158.140476 749.586533 -7.068248
1156.519086 750.751907 -7.182252
1154.897696 751.917281 -7.296256
1153.276305 753.082655 -7.410260
1151.654915 754.248030 -7.524264
1150.033525 755.413404 -7.638268
1148.412135 756.578778 -7.752272
1146.790745 757.744152 -7.866276
1145.169355 758.909526 -7.980280
1143.547964 760.074901 -8.094284
1141.926574 761.240275 -8.208288
1140.305184 762.405649 -8.322292
1138.683794 763.571023 -8.436296
1137.062404 764.736397 -8.550300
1135.441014 765.901772 -8.664304
1133.819623 767.067146 -8.778308
1132.198233 768.232520 -8.892312
1130.576843 769.397894 -9.006316
1128.955453 770.563268 -9.120320
1127.334063 771.728642 -9.234324
1125.712672 772.894017 -9.348328
1124.091282 774.059391 -9.462332
1122.469892 775.224765 -9.576336
1120.848502 776.390139 -9.690340
1119.227112 777.555513 -9.804344
1117.605722 778.720888 -9.918348
1115.984331 779.886262 -10.032352
1114.362941 781.051636 -10.146356
1112.741551 782.217010 -10.260360
1111.120161 783.382384 -10.374364
1109.498771 784.547759 -10.488368
1107.877381 785.713133 -10.602372
1106.255990 786.878507 -10.716376
1104.634600 788.043881 -10.830380
1103.013210 789.209255 -10.944384
1101.391820 790.374629 -11.058388
1099.770430 791.540004 -11.172392
1098.149040 792.705378 -11.286396
1096.527649 793.870752 -11.400400
1094.906259 795.036126 -11.514404
1093.284869 796.201500 -11.628408
1091.663479 797.366875 -11.742412
1090.042089 798.532249 -11.856416
1088.000000 800.000000 -12.000000
1086.127342 799.297753 -12.000000
1084.254683 798.595506 -12.000000
1082.382025 797.893259 -12.000000
1080.509367 797.191012 -12.000000
1078.636708 796.488766 -12.000000
1076.764050 795.786519 -12.000000
1074.891392 795.084272 -12.000000
1073.018733 794.382025 -12.000000
1071.146075 793.679778 -12.000000
1069.273416 792.977531 -12.000000
1067.400758 792.275284 -12.000000
1065.528100 791.573037 -12.000000
1063.655441 790.870791 -12.000000
1061.782783 790.168544 -12.000000
1059.910125 789.466297 -12.000000
1058.037466 788.764050 -12.000000
1056.164808 788.061803 -12.000000
1054.292150 787.359556 -12.000000
1052.419491 786.657309 -12.000000
1050.546833 785.955062 -12.000000
1048.674175 785.252815 -12.000000
1046.801516 784.550569 -12.000000
1044.928858 783.848322 -12.000000
1043.056199 783.146075 -12.000000
1041.183541 782.443828 -12.000000
1039.310883 781.741581 -12.000000
1037.438224 781.039334 -12.000000
1035.565566 780.337087 -12.000000
1033.692908 779.634840 -12.000000
1031.820249 778.932594 -12.000000
1029.947591 778.230347 -12.000000
1028.074933 777.528100 -12.000000
1026.202274 776.825853 -12.000000
1024.329616 776.123606 -12.000000
1022.456958 775.421359 -12.000000
1020.584299 774.719112 -12.000000
1018.711641 774.016865 -12.000000
1016.838983 773.314618 -12.000000
1014.966324 772.612372 -12.000000
1013.093666 771.910125 -12.000000
1011.221007 771.207878 -12.000000
1009.348349 770.505631 -12.000000
1007.475691 769.803384 -12.000000
1005.603032 769.101137 -12.000000
1003.730374 768.398890 -12.000000
1001.857716 767.696643 -12.000000
999.985057 766.994396 -12.000000
998.112399 766.292150 -12.000000
996.239741 765.589903 -12.000000
994.367082 764.887656 -12.000000
992.494424 764.185409 -12.000000
990.621766 763.483162 -12.000000
988.749107 762.780915 -12.000000
986.876449 762.078668 -12.000000
985.003790 761.376421 -12.000000
983.131132 760.674175 -12.000000
981.258474 759.971928 -12.000000
979.385815 759.269681 -12.000000
977.513157 758.567434 -12.000000
975.640499 757.865187 -12.000000
973.767840 757.162940 -12.000000
971.895182 756.460693 -12.000000
970.022524 755.758446 -12.000000
968.149865 755.056199 -12.000000
966.277207 754.353953 -12.000000
964.404549 753.651706 -12.000000
962.531890 752.949459 -12.000000
960.659232 752.247212 -12.000000
958.786573 751.544965 -12.000000
956.913915 750.842718 -12.000000
955.041257 750.140471 -12.000000
953.168598 749.438224 -12.000000
951.295940 748.735978 -12.000000
949.423282 748.033731 -12.000000
947.550623 747.331484 -12.000000
945.677965 746.629237 -12.000000
943.805307 745.926990 -12.000000
941.932648 745.224743 -12.000000
940.059990 744.522496 -12.000000
938.187332 743.820249 -12.000000
936.314673 743.118002 -12.000000
934.442015 742.415756 -12.000000
932.569357 741.713509 -12.000000
930.696698 741.011262 -12.000000
928.824040 740.309015 -12.000000
926.951381 739.606768 -12.000000
925.078723 738.904521 -12.000000
923.206065 738.202274 -12.000000
921.333406 737.500027 -12.000000
919.460748 736.797781 -12.000000
917.588090 736.095534 -12.000000
915.715431 735.393287 -12.000000
913.842773 734.691040 -12.000000
911.970115 733.988793 -12.000000
910.097456 733.286546 -12.000000
908.224798 732.584299 -12.000000
906.352140 731.882052 -12.000000
904.479481 731.179805 -12.000000
902.606823 730.477559 -12.000000
900.734164 729.775312 -12.000000
898.861506 729.073065 -12.000000
896.988848 728.370818 -12.000000
895.116189 727.668571 -12.000000
893.243531 726.966324 -12.000000
891.370873 726.264077 -12.000000
889.498214 725.561830 -12.000000
887.625556 724.859584 -12.000000
885.752898 724.157337 -12.000000
883.880239 723.455090 -12.000000
882.007581 722.752843 -12.000000
880.134923 722.050596 -12.000000
878.262264 721.348349 -12.000000
876.389606 720.646102 -12.000000
874.516948 719.943855 -12.000000
872.644289 719.241608 -12.000000
870.771631 718.539362 -12.000000
868.898972 717.837115 -12.000000
867.026314 717.134868 -12.000000
865.153656 716.432621 -12.000000
863.280997 715.730374 -12.000000
861.408339 715.028127 -12.000000
859.535681 714.325880 -12.000000
857.663022 713.623633 -12.000000
855.790364 712.921386 -12.000000
853.917706 712.219140 -12.000000
852.045047 711.516893 -12.000000
850.172389 710.814646 -12.000000
848.299731 710.112399 -12.000000
846.427072 709.410152 -12.000000
844.554414 708.707905 -12.000000
842.681755 708.005658 -12.000000
840.809097 707.303411 -12.000000
838.936439 706.601165 -12.000000
837.063780 705.898918 -12.000000
835.191122 705.196671 -12.000000
832.000000 704.000000 -12.000000
831.403450 702.091040 -12.000000
830.806900 700.182080 -12.000000
830.210350 698.273120 -12.000000
829.613800 696.364160 -12.000000
829.017250 694.455200 -12.000000
828.420700 692.546240 -12.000000
827.824150 690.637280 -12.000000
827.227600 688.728320 -12.000000
826.631050 686.819360 -12.000000
826.034500 684.910400 -12.000000
825.437950 683.001440 -12.000000
824.841400 681.092481 -12.000000
824.244850 679.183521 -12.000000
823.648300 677.274561 -12.000000
823.051750 675.365601 -12.000000
822.455200 673.456641 -12.000000
821.858650 671.547681 -12.000000
821.262100 669.638721 -12.000000
820.665550 667.729761 -12.000000
820.069000 665.820801 -12.000000
819.472450 663.911841 -12.000000
818.875900 662.002881 -12.000000
818.279350 660.093921 -12.000000
817.682800 658.184961 -12.000000
817.086250 656.276001 -12.000000
816.489700 654.367041 -12.000000
815.893150 652.458081 -12.000000
815.296600 650.549121 -12.000000
814.700050 648.640161 -12.000000
814.103500 646.731201 -12.000000
813.506950 644.822241 -12.000000
812.910400 642.913281 -12.000000
812.313850 641.004321 -12.000000
811.717300 639.095361 -12.000000
811.120750 637.186402 -12.000000
810.524200 635.277442 -12.000000
809.927651 633.368482 -12.000000
809.331101 631.459522 -12.000000
808.734551 629.550562 -12.000000
808.138001 627.641602 -12.000000
807.541451 625.732642 -12.000000
806.944901 623.823682 -12.000000
806.348351 621.914722 -12.000000
805.751801 620.005762 -12.000000
805.155251 618.096802 -12.000000
804.558701 616.187842 -12.000000
803.962151 614.278882 -12.000000
803.365601 612.369922 -12.000000
802.769051 610.460962 -12.000000
802.172501 608.552002 -12.000000
801.575951 606.643042 -12.000000
800.979401 604.734082 -12.000000
800.382851 602.825122 -12.000000
799.786301 600.916162 -12.000000
799.189751 599.007202 -12.000000
798.593201 597.098242 -12.000000
797.996651 595.189283 -12.000000
797.400101 593.280323 -12.000000
796.803551 591.371363 -12.000000
796.207001 589.462403 -12.000000
795.610451 587.553443 -12.000000
795.013901 585.644483 -12.000000
794.417351 583.735523 -12.000000
793.820801 581.826563 -12.000000
793.224251 579.917603 -12.000000
792.627701 578.008643 -12.000000
792.031151 576.099683 -12.000000
791.434601 574.190723 -12.000000
790.838051 572.281763 -12.000000
790.241501 570.372803 -12.000000
789.644951 568.463843 -12.000000
789.048401 566.554883 -12.000000
788.451851 564.645923 -12.000000
787.855301 562.736963 -12.000000
787.258751 560.828003 -12.000000
786.662201 558.919043 -12.000000
786.065651 557.010083 -12.000000
785.469101 555.101123 -12.000000
784.872551 553.192163 -12.000000
784.276001 551.283204 -12.000000
783.679451 549.374244 -12.000000
783.082901 547.465284 -12.000000
782.486351 545.556324 -12.000000
781.889801 543.647364 -12.000000
781.293251 541.738404 -12.000000
780.696701 539.829444 -12.000000
780.100151 537.920484 -12.000000
779.503601 536.011524 -12.000000
778.907051 534.102564 -12.000000
778.310501 532.193604 -12.000000
777.713951 530.284644 -12.000000
777.117401 528.375684 -12.000000
776.520851 526.466724 -12.000000
775.924301 524.557764 -12.000000
775.327751 522.648804 -12.000000
774.731201 520.739844 -12.000000
774.134651 518.830884 -12.000000
773.538101 516.921924 -12.000000
772.941551 515.012964 -12.000000
772.345001 513.104004 -12.000000
771.748451 511.195044 -12.000000
771.151901 509.286084 -12.000000
770.555351 507.377125 -12.000000
769.958801 505.468165 -12.000000
769.362251 503.559205 -12.000000
768.765701 501.650245 -12.000000
768.169151 499.741285 -12.000000
767.572601 497.832325 -12.000000
766.976051 495.923365 -12.000000
766.379502 494.014405 -12.000000
765.782952 492.105445 -12.000000
765.186402 490.196485 -12.000000
764.589852 488.287525 -12.000000
763.993302 486.378565 -12.000000
763.396752 484.469605 -12.000000
762.800202 482.560645 -12.000000
762.203652 480.651685 -12.000000
761.607102 478.742725 -12.000000
761.010552 476.833765 -12.000000
760.414002 474.924805 -12.000000
759.817452 473.015845 -12.000000
759.220902 471.106885 -12.000000
758.624352 469.197925 -12.000000
758.027802 467.288965 -12.000000
757.431252 465.380005 -12.000000
756.834702 463.471046 -12.000000
756.238152 461.562086 -12.000000
755.641602 459.653126 -12.000000
755.045052 457.744166 -12.000000
754.448502 455.835206 -12.000000
753.851952 453.926246 -12.000000
753.255402 452.017286 -12.000000
752.658852 450.108326 -12.000000
752.000000 448.000000 -12.000000
752.000000 446.000000 -12.000000
752.000000 444.000000 -12.000000
752.000000 442.000000 -12.000000
752.000000 440.000000 -12.000000
752.000000 438.000000 -12.000000
752.000000 436.000000 -12.000000
752.000000 434.000000 -12.000000
752.000000 432.000000 -12.000000
752.000000 430.000000 -12.000000
752.000000 428.000000 -12.000000
752.000000 426.000000 -12.000000
752.000000 424.000000 -12.000000
752.000000 422.000000 -12.000000
752.000000 420.000000 -12.000000
752.000000 418.000000 -12.000000
752.000000 416.000000 -12.000000
752.000000 414.000000 -12.000000
752.000000 412.000000 -12.000000
752.000000 410.000000 -12.000000
752.000000 408.000000 -12.000000
752.000000 406.000000 -12.000000
752.000000 404.000000 -12.000000
752.000000 402.000000 -12.000000
752.000000 400.000000 -12.000000
752.000000 398.000000 -12.000000
752.000000 396.000000 -12.000000
752.000000 394.000000 -12.000000
752.000000 392.000000 -12.000000
752.000000 390.000000 -12.000000
752.000000 388.000000 -12.000000
752.000000 386.000000 -12.000000
752.000000 384.000000 -12.000000
752.000000 382.000000 -12.000000
752.000000 380.000000 -12.000000
752.000000 378.000000 -12.000000
752.000000 376.000000 -12.000000
752.000000 374.000000 -12.000000
752.000000 372.000000 -12.000000
752.000000 370.000000 -12.000000
752.000000 368.000000 -12.000000
752.000000 366.000000 -12.000000
752.000000 364.000000 -12.000000
752.000000 362.000000 -12.000000
752.000000 360.000000 -12.000000
752.000000 358.000000 -12.000000
752.000000 356.000000 -12.000000
752.000000 354.000000 -12.000000
752.000000 352.000000 -12.000000
752.000000 350.000000 -12.000000
752.000000 348.000000 -12.000000
752.000000 346.000000 -12.000000
752.000000 344.000000 -12.000000
752.000000 342.000000 -12.000000
752.000000 340.000000 -12.000000
752.000000 338.000000 -12.000000
752.000000 336.000000 -12.000000
752.000000 334.000000 -12.000000
752.000000 332.000000 -12.000000
752.000000 330.000000 -12.000000
752.000000 328.000000 -12.000000
752.000000 326.000000 -12.000000
752.000000 324.000000 -12.000000
752.000000 322.000000 -12.000000
752.000000 320.000000 -12.000000
752.000000 318.000000 -12.000000
752.000000 316.000000 -12.000000
752.000000 314.000000 -12.000000
752.000000 312.000000 -12.000000
752.000000 310.000000 -12.000000
752.000000 308.000000 -12.000000
752.000000 306.000000 -12.000000
752.000000 304.000000 -12.000000
752.000000 302.000000 -12.000000
752.000000 300.000000 -12.000000
752.000000 298.000000 -12.000000
752.000000 296.000000 -12.000000
752.000000 294.000000 -12.000000
752.000000 292.000000 -12.000000
752.000000 290.000000 -12.000000
752.000000 288.000000 -12.000000
752.000000 286.000000 -12.000000
752.000000 284.000000 -12.000000
752.000000 282.000000 -12.000000
752.000000 280.000000 -12.000000
752.000000 278.000000 -12.000000
752.000000 276.000000 -12.000000
752.000000 274.000000 -12.000000
752.000000 272.000000 -12.000000
752.000000 270.000000 -12.000000
752.000000 268.000000 -12.000000
752.000000 266.000000 -12.000000
752.000000 264.000000 -12.000000
752.000000 262.000000 -12.000000
752.000000 260.000000 -12.000000
752.000000 258.000000 -12.000000
752.000000 256.000000 -12.000000
752.000000 254.000000 -12.000000
752.000000 252.000000 -12.000000
752.000000 250.000000 -12.000000
752.000000 248.000000 -12.000000
752.000000 246.000000 -12.000000
752.000000 244.000000 -12.000000
752.000000 242.000000 -12.000000
752.000000 240.000000 -12.000000
752.000000 238.000000 -12.000000
752.000000 236.000000 -12.000000
752.000000 234.000000 -12.000000
752.000000 232.000000 -12.000000
752.000000 230.000000 -12.000000
752.000000 228.000000 -12.000000
752.000000 226.000000 -12.000000
752.000000 224.000000 -12.000000
752.000000 222.000000 -12.000000
752.000000 220.000000 -12.000000
752.000000 218.000000 -12.000000
752.000000 216.000000 -12.000000
752.000000 214.000000 -12.000000
752.000000 212.000000 -12.000000
752.000000 210.000000 -12.000000
752.000000 208.000000 -12.000000
752.000000 206.000000 -12.000000
752.000000 204.000000 -12.000000
752.000000 202.000000 -12.000000
752.000000 200.000000 -12.000000
752.000000 198.000000 -12.000000
752.000000 196.000000 -12.000000
752.000000 192.000000 -12.000000
750.945274 190.300720 -12.000000
749.890549 188.601439 -12.000000
748.835823 186.902159 -12.000000
747.781097 185.202879 -12.000000
746.726371 183.503598 -12.000000
745.671646 181.804318 -12.000000
744.616920 180.105038 -12.000000
743.562194 178.405757 -12.000000
742.507468 176.706477 -12.000000
741.452743 175.007197 -12.000000
740.398017 173.307916 -12.000000
739.343291 171.608636 -12.000000
738.288566 169.909356 -12.000000
737.233840 168.210075 -12.000000
736.179114 166.510795 -12.000000
735.124388 164.811515 -12.000000
734.069663 163.112234 -12.000000
733.014937 161.412954 -12.000000
731.960211 159.713674 -12.000000
730.905486 158.014393 -12.000000
729.850760 156.315113 -12.000000
728.796034 154.615833 -12.000000
727.741308 152.916552 -12.000000
726.686583 151.217272 -12.000000
725.631857 149.517992 -12.000000
724.577131 147.818711 -12.000000
723.522405 146.119431 -12.000000
722.467680 144.420151 -12.000000
721.412954 142.720870 -12.000000
720.358228 141.021590 -12.000000
719.303503 139.322310 -12.000000
718.248777 137.623029 -12.000000
717.194051 135.923749 -12.000000
716.139325 134.224469 -12.000000
715.084600 132.525188 -12.000000
714.029874 130.825908 -12.000000
712.975148 129.126628 -12.000000
711.920423 127.427347 -12.000000
710.865697 125.728067 -12.000000
709.810971 124.028787 -12.000000
708.756245 122.329506 -12.000000
707.701520 120.630226 -12.000000
706.646794 118.930946 -12.000000
705.592068 117.231665 -12.000000
704.537342 115.532385 -12.000000
703.482617 113.833105 -12.000000
702.427891 112.133824 -12.000000
701.373165 110.434544 -12.000000
700.318440 108.735264 -12.000000
699.263714 107.035983 -12.000000
698.208988 105.336703 -12.000000
697.154262 103.637423 -12.000000
696.099537 101.938142 -12.000000
695.044811 100.238862 -12.000000
693.990085 98.539582 -12.000000
692.935359 96.840301 -12.000000
691.880634 95.141021 -12.000000
690.825908 93.441741 -12.000000
689.771182 91.742460 -12.000000
688.716457 90.043180 -12.000000
687.661731 88.343900 -12.000000
686.607005 86.644619 -12.000000
685.552279 84.945339 -12.000000
684.497554 83.246059 -12.000000
683.442828 81.546778 -12.000000
682.388102 79.847498 -12.000000
681.333377 78.148218 -12.000000
680.278651 76.448937 -12.000000
679.223925 74.749657 -12.000000
678.169199 73.050377 -12.000000
677.114474 71.351096 -12.000000
676.059748 69.651816 -12.000000
675.005022 67.952536 -12.000000
673.950296 66.253255 -12.000000
672.895571 64.553975 -12.000000
671.840845 62.854695 -12.000000
670.786119 61.155414 -12.000000
669.731394 59.456134 -12.000000
668.676668 57.756854 -12.000000
667.621942 56.057573 -12.000000
666.567216 54.358293 -12.000000
665.512491 52.659013 -12.000000
664.457765 50.959732 -12.000000
663.403039 49.260452 -12.000000
662.348313 47.561172 -12.000000
661.293588 45.861891 -12.000000
660.238862 44.162611 -12.000000
659.184136 42.463331 -12.000000
658.129411 40.764050 -12.000000
657.074685 39.064770 -12.000000
656.019959 37.365490 -12.000000
654.965233 35.666209 -12.000000
653.910508 33.966929 -12.000000
652.855782 32.267649 -12.000000
651.801056 30.568368 -12.000000
650.746331 28.869088 -12.000000
649.691605 27.169808 -12.000000
648.636879 25.470527 -12.000000
647.582153 23.771247 -12.000000
646.527428 22.071967 -12.000000
645.472702 20.372686 -12.000000
644.417976 18.673406 -12.000000
643.363250 16.974126 -12.000000
642.308525 15.274845 -12.000000
641.253799 13.575565 -12.000000
640.199073 11.876285 -12.000000
639.144348 10.177004 -12.000000
638.089622 8.477724 -12.000000
637.034896 6.778444 -12.000000
635.980170 5.079163 -12.000000
634.925445 3.379883 -12.000000
633.870719 1.680603 -12.000000
632.815993 -0.018678 -12.000000
631.761268 -1.717958 -12.000000
630.706542 -3.417238 -12.000000
629.651816 -5.116519 -12.000000
628.597090 -6.815799 -12.000000
627.542365 -8.515079 -12.000000
626.487639 -10.214360 -12.000000
625.432913 -11.913640 -12.000000
624.378187 -13.612920 -12.000000
623.323462 -15.312201 -12.000000
622.268736 -17.011481 -12.000000
621.214010 -18.710761 -12.000000
620.159285 -20.410042 -12.000000
619.104559 -22.109322 -12.000000
618.049833 -23.808602 -12.000000
616.995107 -25.507883 -12.000000
615.940382 -27.207163 -12.000000
614.885656 -28.906443 -12.000000
613.830930 -30.605724 -12.000000
612.776204 -32.305004 -12.000000
611.721479 -34.004284 -12.000000
610.666753 -35.703565 -12.000000
609.612027 -37.402845 -12.000000
608.000000 -40.000000 -12.000000
606.050535 -40.000000 -11.553248
604.101071 -40.000000 -11.106495
602.151606 -40.000000 -10.659743
600.202141 -40.000000 -10.212991
598.252677 -40.000000 -9.766238
596.303212 -40.000000 -9.319486
594.353748 -40.000000 -8.872734
592.404283 -40.000000 -8.425981
590.454818 -40.000000 -7.979229
588.505354 -40.000000 -7.532477
586.555889 -40.000000 -7.085725
584.606424 -40.000000 -6.638972
582.656960 -40.000000 -6.192220
580.707495 -40.000000 -5.745468
578.758030 -40.000000 -5.298715
576.808566 -40.000000 -4.851963
574.859101 -40.000000 -4.405211
572.909637 -40.000000 -3.958458
570.960172 -40.000000 -3.511706
569.010707 -40.000000 -3.064954
567.061243 -40.000000 -2.618201
565.111778 -40.000000 -2.171449
563.162313 -40.000000 -1.724697
561.212849 -40.000000 -1.277944
559.263384 -40.000000 -0.831192
557.313919 -40.000000 -0.384440
555.364455 -40.000000 0.062312
553.414990 -40.000000 0.509065
551.465526 -40.000000 0.955817
549.516061 -40.000000 1.402569
547.566596 -40.000000 1.849322
545.617132 -40.000000 2.296074
543.667667 -40.000000 2.742826
541.718202 -40.000000 3.189579
539.768738 -40.000000 3.636331
537.819273 -40.000000 4.083083
535.869808 -40.000000 4.529836
533.920344 -40.000000 4.976588
531.970879 -40.000000 5.423340
530.021415 -40.000000 5.870093
528.071950 -40.000000 6.316845
526.122485 -40.000000 6.763597
524.173021 -40.000000 7.210349
522.223556 -40.000000 7.657102
520.274091 -40.000000 8.103854
518.324627 -40.000000 8.550606
516.375162 -40.000000 8.997359
514.425697 -40.000000 9.444111
512.476233 -40.000000 9.890863
510.526768 -40.000000 10.337616
508.577304 -40.000000 10.784368
506.627839 -40.000000 11.231120
504.678374 -40.000000 11.677873
502.728910 -40.000000 12.124625
500.779445 -40.000000 12.571377
498.829980 -40.000000 13.018130
496.880516 -40.000000 13.464882
494.931051 -40.000000 13.911634
492.981586 -40.000000 14.358386
491.032122 -40.000000 14.805139
489.082657 -40.000000 15.251891
487.133193 -40.000000 15.698643
485.183728 -40.000000 16.145396
483.234263 -40.000000 16.592148
481.284799 -40.000000 17.038900
479.335334 -40.000000 17.485653
477.385869 -40.000000 17.932405
475.436405 -40.000000 18.379157
473.486940 -40.000000 18.825910
471.537475 -40.000000 19.272662
469.588011 -40.000000 19.719414
467.638546 -40.000000 20.166167
465.689081 -40.000000 20.612919
463.739617 -40.000000 21.059671
461.790152 -40.000000 21.506423
459.840688 -40.000000 21.953176
457.891223 -40.000000 22.399928
455.941758 -40.000000 22.846680
453.992294 -40.000000 23.293433
452.042829 -40.000000 23.740185
450.093364 -40.000000 24.186937
448.143900 -40.000000 24.633690
446.194435 -40.000000 25.080442
444.244970 -40.000000 25.527194
442.295506 -40.000000 25.973947
440.346041 -40.000000 26.420699
438.396577 -40.000000 26.867451
436.447112 -40.000000 27.314204
434.497647 -40.000000 27.760956
432.548183 -40.000000 28.207708
430.598718 -40.000000 28.654460
428.649253 -40.000000 29.101213
426.699789 -40.000000 29.547965
424.750324 -40.000000 29.994717
422.800859 -40.000000 30.441470
420.851395 -40.000000 30.888222
418.901930 -40.000000 31.334974
416.000000 -40.000000 32.000000
414.049236 -39.830368 32.407116
412.098471 -39.660737 32.814232
410.147707 -39.491105 33.221348
408.196943 -39.321473 33.628464
406.246178 -39.151842 34.035580
404.295414 -38.982210 34.442696
402.344649 -38.812578 34.849812
400.393885 -38.642947 35.256928
398.443121 -38.473315 35.664044
396.492356 -38.303683 36.071160
394.541592 -38.134051 36.478276
392.590828 -37.964420 36.885393
390.640063 -37.794788 37.292509
388.689299 -37.625156 37.699625
386.738534 -37.455525 38.106741
384.787770 -37.285893 38.513857
382.837006 -37.116261 38.920973
380.886241 -36.946630 39.328089
378.935477 -36.776998 39.735205
376.984713 -36.607366 40.142321
375.033948 -36.437735 40.549437
373.083184 -36.268103 40.956553
371.132420 -36.098471 41.363669
369.181655 -35.928840 41.770785
367.230891 -35.759208 42.177901
365.280126 -35.589576 42.585017
363.329362 -35.419945 42.992133
361.378598 -35.250313 43.399249
359.427833 -35.080681 43.806365
357.477069 -34.911049 44.213481
355.526305 -34.741418 44.620597
353.575540 -34.571786 45.027713
351.624776 -34.402154 45.434829
349.674011 -34.232523 45.841945
347.723247 -34.062891 46.249061
345.772483 -33.893259 46.656178
343.821718 -33.723628 47.063294
341.870954 -33.553996 47.470410
339.920190 -33.384364 47.877526
337.969425 -33.214733 48.284642
336.018661 -33.045101 48.691758
334.067897 -32.875469 49.098874
332.117132 -32.705838 49.505990
330.166368 -32.536206 49.913106
328.215603 -32.366574 50.320222
326.264839 -32.196943 50.727338
324.314075 -32.027311 51.134454
322.363310 -31.857679 51.541570
320.412546 -31.688047 51.948686
318.461782 -31.518416 52.355802
316.511017 -31.348784 52.762918
314.560253 -31.179152 53.170034
312.609488 -31.009521 53.577150
310.658724 -30.839889 53.984266
308.707960 -30.670257 54.391382
306.757195 -30.500626 54.798498
304.806431 -30.330994 55.205614
302.855667 -30.161362 55.612730
300.904902 -29.991731 56.019846
298.954138 -29.822099 56.426963
297.003374 -29.652467 56.834079
295.052609 -29.482836 57.241195
293.101845 -29.313204 57.648311
291.151080 -29.143572 58.055427
289.200316 -28.973941 58.462543
287.249552 -28.804309 58.869659
285.298787 -28.634677 59.276775
283.348023 -28.465045 59.683891
281.397259 -28.295414 60.091007
279.446494 -28.125782 60.498123
277.495730 -27.956150 60.905239
275.544965 -27.786519 61.312355
273.594201 -27.616887 61.719471
271.643437 -27.447255 62.126587
269.692672 -27.277624 62.533703
267.741908 -27.107992 62.940819
265.791144 -26.938360 63.347935
263.840379 -26.768729 63.755051
261.889615 -26.599097 64.162167
259.938851 -26.429465 64.569283
257.988086 -26.259834 64.976399
256.037322 -26.090202 65.383515
254.086557 -25.920570 65.790631
252.135793 -25.750939 66.197748
250.185029 -25.581307 66.604864
248.234264 -25.411675 67.011980
246.283500 -25.242043 67.419096
244.332736 -25.072412 67.826212
242.381971 -24.902780 68.233328
240.431207 -24.733148 68.640444
238.480442 -24.563517 69.047560
236.529678 -24.393885 69.454676
234.578914 -24.224253 69.861792
232.628149 -24.054622 70.268908
230.677385 -23.884990 70.676024
228.726621 -23.715358 71.083140
226.775856 -23.545727 71.490256
224.825092 -23.376095 71.897372
222.874328 -23.206463 72.304488
220.923563 -23.036832 72.711604
218.972799 -22.867200 73.118720
217.022034 -22.697568 73.525836
215.071270 -22.527937 73.932952
213.120506 -22.358305 74.340068
211.169741 -22.188673 74.747184
209.218977 -22.019041 75.154300
207.268213 -21.849410 75.561416
205.317448 -21.679778 75.968533
203.366684 -21.510146 76.375649
201.415920 -21.340515 76.782765
199.465155 -21.170883 77.189881
197.514391 -21.001251 77.596997
195.563626 -20.831620 78.004113
193.612862 -20.661988 78.411229
191.662098 -20.492356 78.818345
189.711333 -20.322725 79.225461
187.760569 -20.153093 79.632577
185.809805 -19.983461 80.039693
183.859040 -19.813830 80.446809
181.908276 -19.644198 80.853925
179.957511 -19.474566 81.261041
178.006747 -19.304935 81.668157
176.055983 -19.135303 82.075273
174.105218 -18.965671 82.482389
172.154454 -18.796039 82.889505
170.203690 -18.626408 83.296621
168.252925 -18.456776 83.703737
166.302161 -18.287144 84.110853
164.351397 -18.117513 84.517969
162.400632 -17.947881 84.925085
160.449868 -17.778249 85.332202
158.499103 -17.608618 85.739318
156.548339 -17.438986 86.146434
154.597575 -17.269354 86.553550
152.646810 -17.099723 86.960666
150.696046 -16.930091 87.367782
148.745282 -16.760459 87.774898
146.794517 -16.590828 88.182014
144.843753 -16.421196 88.589130
142.892988 -16.251564 88.996246
140.942224 -16.081933 89.403362
138.991460 -15.912301 89.810478
137.040695 -15.742669 90.217594
135.089931 -15.573037 90.624710
133.139167 -15.403406 91.031826
131.188402 -15.233774 91.438942
129.237638 -15.064142 91.846058
127.286874 -14.894511 92.253174
125.336109 -14.724879 92.660290
123.385345 -14.555247 93.067406
121.434580 -14.385616 93.474522
119.483816 -14.215984 93.881638
117.533052 -14.046352 94.288754
115.582287 -13.876721 94.695870
113.631523 -13.707089 95.102987
111.680759 -13.537457 95.510103
109.729994 -13.367826 95.917219
107.779230 -13.198194 96.324335
105.828465 -13.028562 96.731451
103.877701 -12.858931 97.138567
101.926937 -12.689299 97.545683
99.976172 -12.519667 97.952799
98.025408 -12.350035 98.359915
96.074644 -12.180404 98.767031
94.123879 -12.010772 99.174147
92.173115 -11.841140 99.581263
90.222351 -11.671509 99.988379
88.271586 -11.501877 100.395495
86.320822 -11.332245 100.802611
84.370057 -11.162614 101.209727
82.419293 -10.992982 101.616843
80.468529 -10.823350 102.023959
78.517764 -10.653719 102.431075
76.567000 -10.484087 102.838191
74.616236 -10.314455 103.245307
72.665471 -10.144824 103.652423
70.714707 -9.975192 104.059539
68.763942 -9.805560 104.466655
66.813178 -9.635929 104.873772
64.862414 -9.466297 105.280888
62.911649 -9.296665 105.688004
60.960885 -9.127033 106.095120
59.010121 -8.957402 106.502236
57.059356 -8.787770 106.909352
55.108592 -8.618138 107.316468
53.157828 -8.448507 107.723584
51.207063 -8.278875 108.130700
49.256299 -8.109243 108.537816
47.305534 -7.939612 108.944932
45.354770 -7.769980 109.352048
43.404006 -7.600348 109.759164
41.453241 -7.430717 110.166280
39.502477 -7.261085 110.573396
37.551713 -7.091453 110.980512
35.600948 -6.921822 111.387628
33.650184 -6.752190 111.794744
31.699419 -6.582558 112.201860
29.748655 -6.412927 112.608976
27.797891 -6.243295 113.016092
25.847126 -6.073663 113.423208
23.896362 -5.904031 113.830324
21.945598 -5.734400 114.237440
19.994833 -5.564768 114.644557
18.044069 -5.395136 115.051673
16.093305 -5.225505 115.458789
14.142540 -5.055873 115.865905
12.191776 -4.886241 116.273021
10.241011 -4.716610 116.680137
8.290247 -4.546978 117.087253
6.339483 -4.377346 117.494369
4.388718 -4.207715 117.901485
2.437954 -4.038083 118.308601
0.487190 -3.868451 118.715717
-1.463575 -3.698820 119.122833
-3.414339 -3.529188 119.529949
-5.365104 -3.359556 119.937065
-7.315868 -3.189925 120.344181
-9.266632 -3.020293 120.751297
-11.217397 -2.850661 121.158413
-13.168161 -2.681029 121.565529
-15.118925 -2.511398 121.972645
-17.069690 -2.341766 122.379761
-19.020454 -2.172134 122.786877
-20.971218 -2.002503 123.193993
-22.921983 -1.832871 123.601109
-24.872747 -1.663239 124.008226
-26.823512 -1.493608 124.415342
-28.774276 -1.323976 124.822458
-30.725040 -1.154344 125.229574
-32.675805 -0.984713 125.636690
-34.626569 -0.815081 126.043806
-36.577333 -0.645449 126.450922
-38.528098 -0.475818 126.858038
-40.478862 -0.306186 127.265154
